# 3D point list with one line of data per point:
#   POINT3D_ID, X, Y, Z, R, G, B, ERROR, TRACK[] as (IMAGE_ID, POINT2D_IDX)
# Number of points: 230, mean track length: 34.067917205692112
3932 7.6586145646996364 -8.7359512178668677 19.97295494497666 122 122 122 0.49785880353814793 64 480 71 497 54 433 57 453 67 445 55 433 68 845 63 457 80 417 87 428
3931 0.99282088604274166 8.8774862447270984 24.940409450197748 73 73 73 1.6251179443778503 64 348 54 376 65 357 68 342 63 367 84 504 70 354 82 339 73 526 85 495 78 326 79 315 83 488 86 328
3930 -25.067076479863768 5.440334736539862 21.23015591730422 61 61 61 0.69666401997500627 57 342 60 334 64 325 71 335 69 326 54 360 67 374 55 322 65 336 68 350 59 331 63 339 61 340 74 328 70 386 77 340 75 336 84 319 82 361 73 334 81 340 85 360 78 327 76 333 86 338 79 363 83 309 87 313 80 350
3929 8.7932866755768995 -10.436470569483687 19.232287283123394 148 148 148 1.3456703658165314 71 1006 54 290 55 446 65 309 68 299 59 411 74 442 77 460 75 457 82 433 84 435 73 455 81 455 85 438 78 405 76 445 86 964 79 809 87 615
3928 8.6080997151442418 -11.029616553748033 20.264762095336511 208 208 208 1.0532871948683928 71 902 54 289 67 227 55 291 65 314 68 298 59 278 63 224 61 170 74 172 70 167 77 269 75 231 72 854 84 164 82 142 73 170 81 171 85 159 78 203 76 210 86 156 79 164 83 151 87 201 80 200
3927 9.2756592183588928 -10.271734753517267 19.011687026200075 153 153 153 2.3836447978344646 71 308 54 287 57 947 67 1324 54 885 69 297 55 885 65 859 68 962 68 963 59 413 59 937 59 938 54 999 61 473 61 1002 74 987 74 1298 70 457 70 1002 77 984 75 1003 84 991 82 294 82 983 73 359 73 881 73 940 81 979 63 220 85 948 85 950 78 280 78 933 76 959 86 282 79 923 87 204 83 206 80 929
3925 -3.0429138750340736 -5.9505742104208084 12.321357116853351 139 139 139 2.34677604425644 13 366 64 309 54 282 5 470 7 370 23 373 1 363 10 382
3924 12.013130135681246 -1.4932822119649849 22.459645997612427 66 66 66 0.88258073239484514 71 413 54 271 55 271 68 277 59 361 70 287 77 298 84 280 73 388 81 298 76 291 79 282 83 273 87 366
3920 -0.029068363222436094 -1.7432368171885246 16.996225080140377 178 178 178 0.81034277941673771 71 154 54 180 63 213 61 167 74 166 70 195 77 216 84 190 82 190 73 217 87 160
3918 -1.0594891452051431 -4.3876493021872953 35.885816932374276 0 0 0 0.94483797415684645 62 230 69 132
3917 -0.17055142748609115 -10.990790542570092 17.480779258306601 202 202 202 1.4012005538142995 57 170 64 116 54 158 67 122 55 157 65 139 68 160 59 148 63 142 61 169 74 173 70 240 77 179 75 171 84 162 82 141 73 169 81 169 85 158 78 152 76 173 86 212 79 222 83 152 87 208 80 148
3916 10.553151642116307 -15.591303945046773 28.088209883759049 62 62 62 1.6551532661633921 62 165 54 149 67 167 65 264 59 149
3914 -34.574085903482981 -2.8695260572754995 33.31327643508348 58 58 58 0.96351722212672652 62 64 54 125 56 61 58 70 69 95 72 92 55 120 68 88 59 81 61 91 74 103 70 43 75 101 77 104 84 90 73 97 82 98 81 79 85 107 78 80 76 100 86 84 79 96 83 74 87 97 80 79
3911 -38.032620029608459 -6.7399084585619287 27.102062254152724 30 30 30 1.0820491822381173 62 0 54 0
3910 4.5439867405877088 -9.8772594410880945 17.05291797034014 164 164 164 1.8025445030494256 71 1298 64 972 54 204 59 198 63 219 61 221 74 241 77 222 75 230 84 223 82 256 73 272 81 235 85 215 78 281 76 234 86 285 79 220 79 917 83 203 83 932 77 1301 75 994 87 290 80 146 82 1283
3909 -42.730878613489914 -19.949042258529037 60.394935267984749 116 116 116 0.057942197301103532 58 1124 64 959
3908 -19.093697447755783 -14.707655541110864 18.988227247916551 114 114 114 1.7894099990661791 57 951 72 971 64 835 71 297
3906 -30.023180039073999 4.5799264454356159 19.3989134377779 87 87 87 1.7747665033977897 57 389 60 373 71 370 64 374 54 550 67 371 67 724 54 1216 55 370 55 1244 65 384 68 378 68 600 59 342 61 385 74 372 70 375 75 380 84 353 82 350 78 350 76 373 86 356 79 371 83 347 82 1181 85 828 80 332 79 615 87 356
3905 10.559638188772434 -10.76114524897377 19.941825350075888 57 57 57 1.6349398074761721 71 304 57 276 64 442 56 296 72 464 69 217 67 463 65 160 67 123 68 162 63 474 61 280 74 270 70 299 77 276 77 463 75 266 84 266 82 864 73 304 81 281 85 262 78 209 76 177 86 216 79 438 83 431 87 215
3902 12.088213532058782 -1.616319739834198 22.867694574907528 40 40 40 2.1032263081168461 72 1084 64 1010 56 390 60 416 64 376 74 296 65 297 82 270 86 1009 85 707 77 1090 73 1051 74 1035
3901 -2.1960203906479179 -1.8297586370698304 14.553658313743874 80 80 80 1.8101401515675224 57 93 71 95 56 110 69 83 72 111 50 112 51 115 52 122 34 121 35 131 39 125 42 121 45 116 46 118 48 118 49 116 43 126 53 152 58 116 62 159 66 150 60 95 54 109 64 86 67 140 55 76 55 118 68 187 63 288 61 290 77 198 70 267 75 214 84 301 73 215 73 142 81 218 85 268 78 242 76 214 86 264 79 118 79 259 83 262 87 103 87 199 80 158 80 237 82 370 55 253 65 285 68 263 37 502
3900 0.64668288746015523 2.4872447218787688 16.211423606824919 159 159 159 0.95890909288367565 14 698 16 1324 18 683 11 978 19 435 38 718 20 430 32 454 4 431 43 508 17 934 64 638 72 785 60 337 71 586 87 318 80 480
3899 0.53568191979777868 4.6872904006374574 17.252759012923896 66 66 66 0.94218781804363516 56 27 62 30 69 15 64 19 57 19 60 16 71 22 61 23 55 15 68 21 67 22 74 16 77 20 75 27 84 21 82 25 81 21 85 22 76 19 79 18 86 22 87 19 83 15 80 23
3897 -12.727626218080882 1.992204987449558 13.343838786660067 76 76 76 2.140173750746361 69 563 71 382 64 291 57 586 69 560 60 428 54 944
3895 -53.747208565794011 -17.960310366177637 37.714159881508358 71 71 71 2.146115606707653 57 1300 62 909 72 1017 64 1248 56 986 71 973 55 962 54 958 67 1017 65 1096 68 955 59 918 59 920 61 948 74 937 74 1311 70 979 77 930 75 979 84 637 73 972 81 922 70 977 74 938 75 969 85 208 84 967 75 980 81 615 78 448 78 1239 76 898 76 933 87 946 86 907 80 873 80 875 83 890 65 1095 67 1014
3894 10.70648263552202 6.0983033869666068 25.382370322531145 83 83 83 1.0862904095532835 60 1285 69 1227 71 1260 64 1182 54 1202 67 1248 55 1208 65 1250 68 1225 59 1127 63 1278 61 1265 74 1253 77 1249 75 1196 84 1181 82 1190 73 1252 81 1219 85 1197 76 1203 86 791 85 784 79 1190 79 804 83 493 87 1198 87 798 80 489
3891 -5.657187775420895 4.1467880165538791 17.75016844271693 28 28 28 1.3459379280446098 60 1181 71 1132 64 1084 55 1146
3890 11.71716040516494 -3.4538835972858397 22.823697651027491 135 135 135 0.0727941605900254 62 1302 64 1075
3889 -28.102079469384865 -1.3962536535713232 26.278456732722869 73 73 73 1.8085222306846531 58 994 62 871 64 1061 66 1010 54 1078
3888 -32.964424225001181 -1.7847413407075974 31.619851291917346 83 83 83 0.28506450157871577 72 658 64 1060 54 1081
3887 -28.726864430819099 -1.6417753176557111 28.44893391719312 91 91 91 0.53575216725993646 58 991 64 1059 66 1013
3886 -2.2593176178572518 -2.2520284647656736 16.099160971871079 0 0 0 0.16289956862874103 57 1105 71 1084 60 1094 69 1250 56 1079
3885 -29.849884913732019 1.8548562522803522 26.353033886562422 87 87 87 0.89828456255102762 57 689 71 1070 64 1032 55 1062 65 973 68 649 59 568 74 1019 75 737 84 914 82 695 81 914 62 443 76 841 79 984 83 711 87 708
3882 -1.3523070702939755 -7.6004639610860405 14.802150207452813 124 124 124 1.5672470607774531 60 1038 64 998 84 1009 78 916
3881 -7.9340420245459189 -9.250130898878453 17.001189133332165 106 106 106 2.0355546809362388 57 945 62 1100 64 995 56 1015 54 1008 67 1045 67 1046 54 1007 64 996 55 995 65 942 65 953 68 984 59 960 63 1045 61 1018 61 1020 74 1006 70 880 77 1002 82 995 73 900 73 1022 81 985 78 948 78 951 76 969 86 986 83 956 87 975 80 946
3880 -6.3389763265562129 -7.2900642022957518 12.919709180611724 99 99 99 1.1574296684755836 56 1022 64 967 72 1061 67 1058
3879 0.37464394005722995 -11.88899002194637 19.469975052854913 141 141 141 2.062993748669772 72 1042 64 965 54 994 55 440 65 451 68 446 75 310 82 297 86 424 79 300 79 1237 85 938 87 954
3877 -9.1951382878576595 -5.6488497940702818 19.536353042701599 139 139 139 1.1329245378933135 62 1107 64 955 67 1115 55 1083 68 940 61 977 74 943 77 1309 75 972 81 952 85 913 56 978 62 1106 86 908 79 1243 69 1000
3875 1.2624757747354574 -0.96683688732467121 3.4514806754873715 129 129 129 1.174880775295237 62 1137 64 938
3871 -57.69630738470488 -18.995905899170189 39.253500435527386 93 93 93 1.8715421445261065 57 886 62 460 72 449 64 931 71 889 56 857 60 874 69 917 54 949 67 672 67 1018 54 950 55 963 57 1014 65 960 65 1109 68 916 68 917 59 917 70 980 75 981 77 934 81 923 60 1270 78 192 76 324 77 491 82 911 86 1208 79 309 83 892 87 947 80 855 83 559
3869 -15.198381024414696 2.1175038392669694 15.169765406358186 77 77 77 1.5167079196703788 60 945 64 923
3868 25.652257390796581 -40.348575498467142 75.952564892425443 108 108 108 1.8319408935689503 58 1120 64 863 66 1130 59 802
3867 1.674901512475147 -9.5694968557841555 18.654302030601841 73 73 73 1.2717491612784586 58 912 64 862 54 874 67 901 55 851 68 838 63 1021 61 628 74 1243 56 914 70 1199 77 1243 60 884 75 871 84 977 82 877 73 874 81 967 85 628 78 920 76 837 79 908 83 628 80 804
3859 -16.849679958210587 -6.8030189663053662 13.240910706956271 238 238 238 2.2549188421004249 69 832 64 475
3858 -0.29798105183012014 -1.815020705033128 3.3988815296460952 82 82 82 0.88984013811080698 72 899 64 433
3854 -28.766401797462279 4.4499577849142806 19.268879939160193 97 97 97 0.85882503952001266 57 385 60 374 69 316 71 372 64 375 54 354 67 370 55 371 65 383 68 379 59 340 63 382 74 377 84 352 61 383 75 377 82 349 73 379 81 384 56 245 85 356 76 370 79 360 83 345 80 330 87 355
3853 -27.274241890291787 3.7481484570689516 23.20836179233212 131 131 131 1.335345004425829 57 374 64 354 71 367 60 366 69 351 54 552 67 365 55 548 65 390 68 553 59 316 63 400 61 379 74 380 77 375 75 370 84 365 73 390 81 375 81 1133 61 1310 75 1217 84 1271 85 527 85 1120 78 546 78 1175 76 524 79 376 83 516 87 532 80 295
3852 7.8162134745268315 1.625842506737124 19.518030139863615 152 152 152 1.3265588661150371 57 365 60 326 69 315 64 352 54 314 67 379 55 247 65 248 68 360 59 301 63 386 74 373 70 252 77 260 75 376 81 385 76 368 86 363 79 367 83 228 80 349
3851 5.2137787606348134 7.5148120024901388 22.230471390433841 89 89 89 0.53760215469891059 71 351 64 349 54 1195
3850 6.8823731710243843 1.7698957188899296 19.017853487227121 36 36 36 1.3961628404036626 57 337 60 327 71 268 64 324 67 377 55 318 65 335 68 318 59 303 63 388 61 390 74 371 70 379 77 383 75 378 84 357 82 364 73 391 81 276 85 365 78 349 76 369 86 354 79 366 83 227 87 312 80 325
3848 -0.20722969338706779 -18.110678564872149 29.439879766591631 188 188 188 1.5605393763610329 57 311 66 255 64 300 58 208 54 286 68 452 59 275 79 433
3847 -0.53673313256057587 -8.075101273237129 12.371583698701327 82 82 82 1.346011563318072 60 1020 64 296 65 303 55 302
3845 -0.87413172616538182 -11.295993222404816 17.3943300746818 85 85 85 1.6429666225123178 64 259 54 203 67 276 55 992 59 207 63 310 61 312 70 165 82 157 73 267 78 932 76 843 86 280 79 166 83 943 87 285 80 930 71 163
3844 2.9686691572098174 -10.243982692528515 16.891082827837401 83 83 83 0.96760063245100802 72 268 63 311 61 314 74 309 70 303 73 311 85 286
3843 -27.148581104184071 5.9725782315462634 19.318917603594695 59 59 59 0.77701677161855243 57 256 60 241 71 244 64 242 54 319 67 338 55 279 65 342 68 327 59 309 63 348 61 346 74 333 70 334 77 346 75 346 84 313 73 340 81 345 85 320 78 306 76 327 86 316 79 324 87 325 80 304
3842 -27.402966233756143 6.0457739861391984 18.819578792114971 58 58 58 0.90047897003129196 57 254 60 240 71 226 64 240 54 322 65 343 68 359 59 333 63 349 61 347 74 335 70 335 77 334 84 328 82 320 81 346 85 321 78 310 86 318 79 325 83 317 87 326 80 305
3840 -17.739262124426919 2.4079913313513868 20.810923753292773 75 75 75 1.5290673230190108 60 172 69 249 54 245 67 254 71 267 71 185 55 240 65 253 68 245 59 231 63 261 61 262 74 257 70 255 77 264 75 251 84 241 82 246 73 255 81 255 85 240 76 255 78 225 86 235 86 537 79 247 83 234 80 211
3839 6.3237134155082115 6.525175588963231 20.596414006734321 30 30 30 1.2850013106315665 57 179 60 188 71 171 64 166 67 173 55 167 65 164 68 138 59 154 63 173 74 198 70 189 77 183 75 176 84 175 73 181 85 167 78 132 76 182
3838 6.3279931464242249 6.2392550030279823 20.592634846951469 99 99 99 2.0343048566097965 57 178 60 187 71 172 64 165 67 174 54 163 55 220 65 356 68 172 59 159 63 174 61 179 74 196 70 241 77 358 75 237 84 177 82 171 73 182 81 184 85 129 85 227 78 162 76 237 87 217 79 178 86 172 80 161 83 163
3836 -19.049610999585234 -7.8860120338817357 15.071259231002575 255 255 255 1.0664084742604236 61 330 74 318 70 315 77 326 75 322 69 1255 84 304 82 371 73 323 81 326 58 1144 66 884 78 290 76 321
3834 7.455100283864101 1.8486166050959476 19.395281362244045 27 27 27 1.4380743854502327 57 110 60 99 71 102 64 99 67 108 54 98 69 93 55 101 65 105 68 104 59 98 63 106 61 109 74 77 70 104 77 78 75 77 84 112 82 106 73 110 81 114 85 114 78 102 76 77 86 74 79 75 83 102 87 105 80 99
3832 1.8066948603687436 -11.333868550783061 19.318405928035503 69 69 69 1.6977926392525935 57 60 71 58 64 57 54 52 67 56 65 76 68 58 59 53 63 60 61 59 74 54 70 52 77 55 82 33 81 58 85 32 78 26 86 52 79 26 83 52 80 49 87 79
3831 -25.444647972560738 -26.444279960214566 51.680360075993498 139 139 139 1.5272508844931907 58 96 62 96 66 101 72 87 64 55 56 88 54 79 59 86
3828 -25.379215754807834 -4.7151723929026312 17.594158424545224 29 29 29 1.2808395861318633 72 0 64 0
3821 -32.46181027480425 -1.9143123006362945 32.771143852965757 86 86 86 1.0428029951803166 66 1014 72 903 57 793 49 874 56 1056 71 1054 45 871 48 546 51 857 64 1062 55 1301 67 1085 65 1066 68 1019 59 978 63 1056 74 1049 70 1032 77 1092 84 1016 73 1052 81 1017 86 1058 79 1022 80 1031 80 1032
3819 -20.722550021631317 4.2785489948700715 22.888435694126844 30 30 30 1.5430668561352128 58 10 57 6 64 10
3817 4.1867101981854349 -10.489374227663534 17.97018780863165 88 88 88 1.3649907839640325 71 454 60 1012 56 1001 69 1259 57 458 54 447 67 455 55 447 65 456 68 451 59 418 63 454 61 454 74 438 70 831 77 455 75 454 84 432 82 428 73 840 85 421 78 413 87 435
3816 0.17519722973426269 -4.1265613613016416 16.322176995142403 103 103 103 0.84883444032392807 60 93 69 80 71 93 58 103 62 100 72 90 56 92 57 89 64 84 54 113 67 88 55 92 65 88 68 92 59 83 63 97 61 119 74 123 70 88 77 126 75 114 84 121 82 90 73 122 81 126 85 123 76 119 86 119 79 125
3815 -30.524075721098974 -1.0689445035860978 29.349689655328927 36 36 36 1.0875875739364453 52 421 57 413 50 504 69 862 34 360 31 559 35 522 39 555
3814 6.7941429300706497 4.4142268553608082 20.33291853221418 81 81 81 1.9231276529903845 71 175 56 369 58 531 72 806 71 1262 60 860 57 545 64 518 64 264 54 223 67 238 55 342 65 240 68 228 68 752 59 325 63 242 63 1292 61 242 61 816 74 245 74 1221 70 265 77 354 77 769 75 242 75 1226 82 233 73 349 81 360 85 335 76 241 76 726 79 241 87 252 80 218
3809 9.481629889554771 0.98467734926575978 19.540742448387057 144 144 144 1.0141878317414117 72 1256 63 1033 55 1157
3808 1.4987147022887179 2.7745284530402552 16.875770461966653 116 116 116 1.937764942641272 39 1332 57 1200 54 1171 70 465 84 1162 81 1130 76 1100
3806 -5.9379583552197994 3.756933273199945 16.107501699994526 93 93 93 0.39376904052349354 69 1139 57 1188 54 1165 61 1124 84 1099 79 1084
3805 -0.93325768263366438 -2.1591828851342818 16.081551632388539 208 208 208 0.70160346484043334 71 1295 57 1108 64 1040 57 1106 54 672 67 690 55 894 65 899 68 878 59 608 63 664 61 749 74 900 70 676 77 899 75 660 84 654 82 879 73 649 81 620 85 598 78 852 76 803 86 576 79 847 83 595 80 846 87 1032
3804 4.1441272607602349 -1.9302235496806697 10.377227541476749 214 214 214 0.92880258801740689 72 1126 57 1094
3803 12.146123616080454 -2.7585586311728574 22.647064549136893 86 86 86 1.3817583305612471 52 1092 60 1107 66 908 72 1071 77 1072
3802 -33.568964495308478 -2.1965723654546965 32.809363194013152 98 98 98 0.81427631143822998 71 658 72 673 60 669 62 872 56 1059 27 826 31 841 57 1066 64 1066 54 1077 67 1080 55 1087 65 1070 68 1020 63 1059 61 1097 74 1088 70 395 77 1094 75 1042 84 1019 82 1079 73 1205 81 1019 85 1042 78 1047 76 1050 86 1062 79 1028 83 1035 87 1055 80 1033
3801 0.69937992625188439 -0.96559163288012773 14.018921472580081 0 0 0 0.21325966937804988 40 924 62 1047 38 960
3800 0.94924161771364324 -7.5264421409305395 15.356866200636031 136 136 136 1.5070280298530885 56 1012 60 1041 57 1050 72 1021 62 1066 58 1097 67 1053 74 972 70 1018 79 945
3799 1.5632568158403353 -10.020574467293006 19.361350715893021 130 130 130 0.85530139980083142 52 1152 58 1085 64 968
3797 -29.492135890391165 -20.396397967875771 26.562051006334606 116 116 116 0.8749682142517009 72 1308 57 1027 64 871 54 992 67 1029 68 832 61 633 77 976 60 1022 75 883 82 969 73 1009 78 802 76 833 79 912 83 928 80 800
3794 1.6039700038720495 -8.3102916845077797 19.188306701297837 159 159 159 2.279333208123707 72 1026 57 1009 62 1122 64 477 64 928 54 956 67 787 55 941 55 943 65 867 68 926 68 932 59 820 63 906 61 456 74 996 74 998 70 949 70 961 77 985 77 999 75 958 84 1187 73 827 73 896 81 1271 84 950 82 935 81 939 82 837 85 906 85 910 78 187 78 943 75 222 77 232 81 224 82 220 84 212 85 210 76 226 76 962 76 965 86 639 86 641 75 955 79 881 79 882 83 188 83 579 83 897 87 187 87 907 80 188 80 879 80 881
3791 2.0484149136387324 0.36916306866035886 16.010918551528469 108 108 108 1.8017924400605583 62 1193 57 982 72 963 57 988 81 1026
3790 -2.5016792779655663 0.91133872413342665 15.444566945387157 26 26 26 0.26725416879850084 71 965 57 956 76 1138
3788 -19.323276870596573 -14.412777279693541 18.956710362691265 92 92 92 1.7101844197367244 71 461 72 1044 57 950 56 929 60 462 64 869 64 873 54 876 67 1027 55 845 65 1026 68 834 77 449 81 449 83 927 87 613 80 801
3786 -29.313087235303236 -20.708919235608064 26.525549751618957 96 96 96 0.87252495151395804 71 875 72 951 57 938 60 934 69 812 56 921 64 844 54 882 67 881 55 850 65 849 68 873 59 811 63 891 61 645 74 839 70 1200 77 852 75 990 84 872 82 871 73 869 81 632 85 642 78 801 76 831 86 955 79 814 83 634 87 608 80 831
3782 -17.107431080110338 -6.8078021938952906 13.204218741593806 57 57 57 1.9659703592611801 56 860 57 888 62 915 72 890 64 313 59 288
3781 -31.211830656180421 -13.514675193263987 29.159842035690918 194 194 194 1.0744560115362947 58 865 72 169 57 885 56 856 54 836 63 903 74 921 77 938 75 641 78 865
3778 5.4484322321895746 6.2588597367252579 19.605387791645207 92 92 92 2.7876129031445318 69 1192 57 848
3775 -11.371018325754235 4.1363170387611898 17.7656369193495 75 75 75 1.6127367016017018 60 1155 71 525 57 591 68 325 64 265 77 393 82 366 78 221 76 335 79 361 83 482
3773 -37.86180708846306 -11.490830265673864 30.183745831551768 58 58 58 0.8172908353975249 71 490 72 447 57 503 59 447 61 648 75 637 77 471 84 629 82 903 73 842 85 578 78 443 86 589 79 866 83 565 80 863
3771 12.911182005857928 -4.9842040817510576 22.486252050997237 44 44 44 0.37207617820770178 60 488 71 487 57 497
3770 -0.60256781737021126 -2.4967008995349449 17.716115672193329 159 159 159 1.7030614898864447 60 481 69 465 57 487 64 465 77 434 75 470 81 621 84 448 85 446 76 882 86 389 83 444 87 461 87 585 80 243
3769 -0.5960901680695011 -1.515575066417705 16.733240392197757 119 119 119 0.36414534101637486 60 278 69 474 71 270 57 483 64 462 67 414 54 467 55 463 65 477 68 475 59 432 63 395 61 441 74 401 70 415 77 417 75 467 84 368 82 393 73 477 81 469 85 457 78 376 76 454 86 386 79 459 83 1038 87 458 80 436
3768 -3.1104216000574283 -2.7399726183940216 15.019984670191482 128 128 128 1.6543162921623298 52 340 71 667 57 478 64 457 54 269 67 473 67 695 55 250 55 1066 65 485 65 1113 55 888 68 267 59 298 63 493 61 293 74 283 70 279 77 292 75 278 75 657 84 312 84 444 73 291 81 286 85 200 78 303 76 217 86 260 79 306 87 466
3767 11.85188361442717 0.33644349993315276 24.153328426172223 81 81 81 0.99464892876603739 60 637 57 473 64 780 55 602
3766 -32.412183327117333 -21.704960596019177 28.420479664922098 109 109 109 1.5664038985040638 71 872 72 946 57 463 56 919 69 449 60 929 71 1020 64 868 54 440 67 912 64 870 55 1013 65 855 65 857 55 846 68 835 61 631 61 632 70 450 77 450 84 870 84 978 82 424 81 450 85 640 85 937 78 803 76 834 86 423 79 911 83 620 87 612 87 949 80 802
3765 -2.0659257901362618 -10.29955493514097 15.996927312461565 209 209 209 1.0634575194194826 60 459 57 462 68 447 55 441 57 237 65 853 77 239 67 859 70 168 74 240 73 226 75 225 81 228 82 225 84 215 85 223 76 230 78 200 79 161 87 205
3763 -0.23300692602774553 -17.068330252116848 28.031798779675871 111 111 111 1.6104263415397617 72 299 57 457 64 437 54 878 68 831 55 843 65 990 67 919 59 421 63 1017 61 676 84 983 83 933 80 798 87 953
3762 -47.886216604424426 -23.096806928899756 31.033110933394067 56 56 56 1.5456688101149829 71 446 57 455 60 448 56 431 69 835 64 434 54 437 67 448 55 436 65 449 68 837 57 231 59 801 63 460 61 629 74 433 77 853 75 449 84 427 82 876 70 309 61 310 68 304 73 864 81 447 78 199 78 804 76 836 86 291 83 926 80 197 80 825 87 430 83 283
3759 -27.984938452615861 1.6815226507171719 26.629740385779105 0 0 0 0.84755340204904062 52 400 58 365 60 270 39 275 42 268 43 228 45 231 50 282 51 371 53 338 46 312 62 351 34 224 48 228 57 406
3757 8.0238677078445697 1.8730431435378099 19.616090819823985 30 30 30 1.4719459897749632 60 372 69 319 71 337 57 343 64 327 54 320 67 332 68 326 59 310 61 384 70 385 77 379 75 384 84 361 82 362 73 251 78 246 76 375 86 343 87 319 80 301
3756 -2.8717927585516128 -0.43889925227699683 14.773233494930849 169 169 169 0.2982437164129973 66 293 57 298 67 333 1 525 5 498
3755 0.26903019534651712 -1.593338999770008 17.215496800954192 125 125 125 0.34073002699804372 60 281 57 293 67 211 64 267 65 292
3754 -1.652917377778732 -1.5661926656584084 15.29888415653458 153 153 153 0.37007020770219839 71 205 57 287 63 1106 55 257 65 478 68 476 70 1085
3753 3.5307285640811141 -8.4670925762182048 14.110497963105944 86 86 86 1.3495292190280239 71 459 57 284 63 283 61 270 68 220 73 218 85 220
3752 1.1591584519651768 -10.434328904113274 16.911571712183704 216 216 216 1.6904803883794368 60 264 71 221 57 283 68 215 54 206 55 212 65 218 67 279 61 219 74 351 70 153 77 237 75 329 84 220 82 212 73 230 81 232 85 216 78 202 76 232 86 168 86 442 85 608 79 221 79 810 83 204 80 203
3750 -22.124903655856674 4.3914634911162427 25.969573769479869 0 0 0 1.4172647250129777 58 141 66 190 72 180 53 131 62 186 50 131 48 144 44 115 57 261
3749 -10.411432634994094 3.6522025548105779 16.079090547924654 63 63 63 2.0727836936038218 69 513 71 248 67 230 57 259 55 178 65 269 64 243 73 235
3748 -34.238719916511613 7.1421709178505903 24.532640211294009 59 59 59 1.2200057275807514 72 236 57 257 56 237 60 262 64 330 54 318 67 337 55 374 69 210 65 341 68 324 59 306 63 347 61 345 74 332 70 333 77 345 75 345 84 326 82 319 73 341 81 343 85 319 78 305 76 340 86 315 79 322 83 315 87 323 80 302
3747 10.727587298984666 -10.354519653043241 19.678805843664378 147 147 147 1.768258268217078 60 144 71 1014 57 232 64 216 69 211 67 275 55 134 65 158 77 892 74 986 84 165 82 982 73 1018 81 172 76 174 78 154 86 965 87 154 80 147
3745 -3.1711398420303056 -2.3438831097930999 14.468470098196732 127 127 127 1.5389742727897286 60 271 57 217 64 455 67 940 54 366 55 874 77 289 73 793 76 343
3742 -0.88067473215549352 5.2674079629973667 17.339687715466763 72 72 72 0.61775503802371223 60 183 71 174 57 177 64 169 54 164 67 177 55 173 68 175 23 281 10 285 63 178 61 182 74 193 75 179 82 173 73 185 81 186 85 170 78 164 76 185 86 174 79 235 83 167 80 160
3741 10.633905849408068 -9.7208405915548699 18.537160004531781 135 135 135 1.7586890008377409 60 306 57 165 64 263 55 286 65 305 54 284 68 291 61 317 74 304 70 301 77 461 75 459 82 422 73 287 81 269 78 421 76 446 79 295 87 289 83 154 80 149
3740 12.025044718653572 -3.1217755951054045 22.402371436902413 134 134 134 1.3995138163693541 60 112 57 159 64 197 67 155 54 107 65 116 59 108 63 145 61 197 74 148 70 114 77 194 75 151 82 188 73 115 85 177 78 142 76 215 86 184 87 193 83 161 61 288 78 289 80 175
3738 -9.6301575632906982 -13.804997457940024 20.190236772542541 157 157 157 1.8270214351520975 66 166 57 121 58 201 62 276 64 114 54 117 55 111 59 146
3737 -30.568811713753913 -19.997705893546588 25.889494190860411 99 99 99 0.89326711056803931 71 123 72 85 57 119 60 88 69 77 56 120 64 115 54 116 67 121 55 112 65 123 68 124 59 116 63 125 61 130 74 130 70 124 77 117 75 126 84 128 82 115 73 128 81 131 85 127 78 118 76 127 86 125 79 123 83 124 87 120 80 116
3735 -18.667059118566019 4.0510871261640586 23.752958329528607 77 77 77 1.3789374951483213 60 18 69 18 71 18 57 43 64 36 75 37 63 39 70 35 61 32 82 40 77 23 85 30 78 22 84 25 86 19 79 23 83 19 87 24 80 22
3733 -2.3218869379822782 -10.21786232248518 18.471016789498847 115 115 115 1.5829614844406947 66 9 57 14 58 9 62 6
3732 -0.56430229559545841 4.5184622358217092 16.77154082562221 69 69 69 1.3268380227250507 71 9 57 13 55 10 74 10 70 10 77 10 84 14 73 11 81 10 76 10 86 9 79 10 83 10 80 10
3731 -3.3363993374284271 -9.9561721268976768 23.131525005370548 146 146 146 1.3046060069300958 72 11 57 10 54 11 68 9 59 7
3730 -0.68686708410882713 3.804872829016265 16.526639380855453 33 33 33 1.556281796580947 60 9 57 8 54 6 70 6 77 9 75 6 84 10 73 8 85 9 86 7 80 8
3728 11.461733424370181 -8.4565353979620479 29.33178106055863 118 118 118 1.2202229738062642 58 5 72 5 57 5 62 5 56 2
3725 -31.146306952156475 -19.896640578654267 27.155251005094296 55 55 55 1.5332859120141424 71 87 57 122 72 118 56 85 64 113 54 78 68 96 59 132 65 140 63 96 63 138 61 97 61 148 74 108 74 176 70 123 77 150 75 125 84 94 82 116 81 97 85 126 78 150 76 170 86 124 79 108 87 119
3723 -18.146286244730128 -7.920289203996262 13.956711525528126 253 253 253 1.9491143162343305 56 305 62 222 72 322 64 646 71 895
3722 -29.357174774028785 -10.686209642677071 20.605257778455154 51 51 51 1.9680182633762862 62 913 71 892 72 1012 57 1010 60 496
3720 -25.439178375979612 -17.543362322439819 23.675544360530914 155 155 155 2.55429299771055 60 1009 66 489 71 871
3719 -11.411755232770448 4.3613337145108639 18.315760086784593 72 72 72 1.4233476358307149 56 311 71 261 57 531 64 852 54 1180 67 889 68 791 65 1193 82 771 81 510 85 848 86 896
3716 1.9799452022374546 -12.038192409819684 20.329426880271043 114 114 114 2.4066411441897069 56 1003 69 1014 60 1016 71 1018 66 1125 62 1299 52 905 65 317 68 300 59 280
3714 11.33225511447036 3.1202594847801928 24.305602122099799 68 68 68 1.3339896117817991 46 278 52 1346 34 282 71 907 56 1169 60 888 64 491 54 495 67 824 55 483 65 499 68 489 59 429 63 512 61 512 70 496 77 499 75 497 84 489 82 858 73 506 85 731 78 825 76 486 86 474 79 477 80 458 83 467
3713 -1.5567691553151588 -2.3187211351852492 14.342534245436186 80 80 80 2.0709099634411294 56 880 60 892 53 958 66 994 52 1101 71 666 11 1146 18 852 26 1056 29 942 41 998 33 1245 40 1194 37 979 20 1167 33 957 44 974 48 1054 35 1096 46 491 49 495 58 524 66 521 72 906 64 627 57 489 61 636 55 890 59 1117 75 666 82 919 64 467 76 875
3711 7.2212276220190752 -10.710044729802135 18.972130236205395 58 58 58 1.9275339312568309 56 292 69 441 60 256 71 219 56 426 57 465 64 298 54 211 67 457 57 449 55 283 65 461 68 287 59 272 63 313 61 479 74 303 84 840 82 264 82 980 73 310 81 310 85 292 78 420 73 880 86 436 79 225 79 922 83 603 83 1189 87 211 80 430 80 429
3710 -33.012466975003228 -1.2654333070589212 29.947620164857824 21 21 21 1.1037883908699413 60 474 62 498 66 534 69 400 71 474 58 498 60 913 56 394 72 472 57 416 64 458 54 461 55 862 59 438 63 424 61 420 74 396 70 410 77 412 75 412 84 387 82 388 73 397 81 466 52 551 49 333 50 503 53 370 51 385 85 453 78 374 76 403 86 830 79 396 83 451 80 847
3709 -1.0710452988395629 -2.9406761885772705 15.677104460480576 75 75 75 1.9312929276308706 62 849 72 911 56 1065 71 656 39 1245 49 1050 51 888 50 912 66 1330 62 329 72 1121 56 260 69 271 69 1070 60 218 57 219 57 910 64 202 64 630 54 198 55 201 55 926 65 896 68 253 59 443 61 490 70 476 85 462
3708 12.563076057812394 5.7838818584456622 25.555625658586912 45 45 45 1.4290218536443948 30 1242 33 1335 35 1249 27 1216 42 1205 48 742 44 1239 62 1170 58 1210 56 822 69 827 71 841 52 568 53 527 71 530 64 510 61 538 70 523 82 500 81 516 85 497
3707 -4.8557782007997359 0.40886949858791416 14.813062043580448 42 42 42 0.024546792901286793 72 984 71 1302
3705 7.0464983958710361 5.3235120367554405 20.839932687209707 59 59 59 1.4712351110738642 62 1159 71 1278 58 1239 64 1196 67 1252 70 1210 77 760 73 828 76 1205
3704 -3.2942623844916157 4.8315409231670321 16.510889055793086 28 28 28 0.53080098881110149 66 1241 71 1275 57 1143
3703 0.78226156446970163 6.9041607042005015 17.999012718453439 48 48 48 1.2380509887389772 60 1278 69 1222 71 1225 64 1178 54 1187 67 1245 55 1204 65 1229 68 1212 59 481 59 776 54 511 68 1224 63 1259 61 1261 74 449 74 1247 70 1274 77 809 75 1224 84 1180 82 733 73 1215 81 1214 55 747 78 551 76 1189 86 1210 79 1185 83 1156 87 1196 80 1178
3702 10.535615877457541 -10.377934776932566 19.655466550026169 141 141 141 1.4874519587568578 56 998 71 1220 54 883 55 746 68 872 59 277 54 193 61 475 63 216 74 844 70 304 75 852 82 865 73 171 73 1212 85 613 78 837 86 966 79 165 87 1195 83 601
3700 -0.3918145033480695 -10.141082006482705 16.455339585059424 115 115 115 1.7293331947208617 72 1039 71 1209 62 1295 65 1024
3698 -25.892690582419682 3.5048457956124723 19.64350181600777 56 56 56 0.96056751233647553 56 1224 62 721 71 1141
3697 -1.2890688929858301 2.2338312113293664 8.5270710263666096 27 27 27 2.6970156240549659 53 1212 71 1134
3696 -5.4001600365993676 4.2800374302917419 16.204534112486868 28 28 28 0.65360159566260123 52 1255 66 1181 71 1114
3695 0.71878065373080302 -2.7854383170233667 21.985113549174827 169 169 169 0.39003823512059754 53 1008 62 993 71 1110
3694 8.4826812512318064 -4.1063477028037685 22.688930685299674 166 166 166 1.1092795756337945 53 1019 71 1092 54 1073
3693 11.407653584006985 -3.5666813715498193 22.270138768181738 124 124 124 1.2479786880696138 69 1062 71 1078 54 1065 68 1046 63 1087 70 1064 80 1019 86 1055
3691 1.7437211653596594 -9.6954783187978286 19.431382986794588 123 123 123 1.8772841918780339 62 1096 71 1041 57 1042 66 1132
3690 -3.8099648778670967 -7.7613376208528182 14.568168186927904 61 61 61 1.8604283892694866 56 1014 71 1037 57 1045 54 1018 67 1056 63 1019 83 965
3689 3.049961554716488 -7.210848289613649 15.343968523382728 59 59 59 1.6733785921026705 56 973 71 1025 64 989 59 912 78 824
3685 8.2176195648254424 -10.148845920975347 18.845632210682066 102 102 102 1.1655725878623344 72 1038 71 1013 57 1036 54 1272 59 952 61 997 70 995 78 929 85 941 76 1251 86 957 79 1234 87 611
3684 1.8097358205651586 -10.402711877226539 19.469295330740415 109 109 109 1.9855408392429323 62 1081 71 1010 54 987 55 1298
3683 -3.2805733945875732 -3.452509133127136 12.40041761667695 133 133 133 1.6775699375245954 52 1169 67 1007 74 960 70 974 75 635
3682 3.0785003208444648 -8.8358443776924354 18.790458658982757 66 66 66 1.966219167876482 53 1193 54 966 67 1015 55 947 65 948 63 1046 57 1004 67 1048 61 1023 77 969 77 1006 75 978 84 976 84 1002 81 993 85 961 86 990 79 936 79 940 83 953 78 914
3681 -24.378410017033818 2.8518093554655537 25.801618154446938 82 82 82 0.90191779943894712 53 1232 71 960
3679 -26.814340039729345 3.5455266476674576 21.530567950096273 62 62 62 1.3989765083665353 60 1216 62 733 71 950 69 950 56 746 72 1226 64 1104 54 925 67 1274 59 880 58 1299 76 1152 84 1277
3677 5.6263923792933639 -9.4022823353289091 16.699228716493607 180 180 180 1.9421158609918412 60 925 72 168 71 904 69 148
3673 -29.988746317704017 -21.057833338841629 27.451014743299723 121 121 121 0.96363654048713299 60 933 69 810 71 874 56 1008 72 861 57 1026 64 979 54 879 67 1033 55 976 65 988 68 957 59 940 86 953 83 632 87 957 80 926
3670 -26.816843623840885 -7.1044300751440765 26.019664085802184 126 126 126 1.1593307000703659 60 807 66 481 69 841 71 677 49 488 50 477 51 1106 58 477 72 445 42 314 46 518 48 484 35 338
3668 -29.098390107182915 -2.9123414257892737 31.102549269207657 61 61 61 1.0787537203121533 52 208 53 270 60 671 62 232 66 238 71 660 39 243 43 235 49 374 56 458 46 237 69 461 27 291 57 902
3667 -31.483269940717786 -1.5889335215519276 32.153252795205219 130 130 130 1.0726255643238995 52 1035 53 981 60 668 66 1008 39 515 42 549 43 542 45 540 49 548 50 837 51 522 46 544 48 548 27 494 34 517 35 520 57 687 71 657 64 655 62 870 54 826 55 911 59 596 70 1033 77 686 31 555 65 910 65 246 68 891 67 628 61 737 63 696 70 615 73 677 74 669 75 588 81 607 82 892 84 600 44 568 30 571 33 578 85 588 78 637 76 650 86 608 79 649 83 587 87 565 80 843
3666 -15.665856096001223 2.3679908967322145 14.706985015302104 0 0 0 1.3302938170218672 56 353 60 574 69 349 72 374
3665 -35.178122886194473 4.662408584243753 28.273968438602047 128 128 128 0.91923347469516725 62 390 56 361 58 334 72 383 57 375 66 383 64 357 54 548 67 555 55 545 65 566 68 550 59 516 63 564 61 569 74 576 70 587 77 590 75 586 84 581 82 563 73 556 81 545 85 524 78 544 76 567 86 565 79 521 83 514 87 528 80 517
3664 10.646751311300502 6.1149604934579926 25.882381036449189 94 94 94 1.7607635845761549 53 259 56 513 60 463 50 526 42 399 45 398 71 531 55 509 54 1203 55 1209 68 511 59 1141 63 540 61 539 74 349 70 358 77 243 75 239 84 508 82 501 73 394 49 559 57 844 81 891 84 849 77 1250 85 498 78 741 76 381 86 778 86 790 83 494 87 282 80 490 83 1151 80 488
3662 1.6873617475597471 6.1416654382534208 16.592355561462767 68 68 68 1.9128051477600705 69 250 71 528 57 536 55 507 59 320 74 509 61 362 77 563 75 517 82 338 81 513 78 479 87 344
3660 -29.219659812988542 -20.139501580875976 26.585179495197401 86 86 86 1.7396647165344485 60 461 62 478 69 448 71 460 56 443 72 468 57 460 64 440 54 439 67 450 55 438 65 450 68 444 65 847 68 836 55 848 59 410 63 462 61 464 61 630 74 435 70 449 75 450 75 882 84 869 82 875 73 450 85 431 85 639 78 409 76 438 86 422 79 428 83 422 83 629 87 419 87 817 80 410
3659 7.87559487185574 -10.174470249246182 18.375229098669841 74 74 74 1.9109580493766007 72 309 71 455 54 857 68 871 74 447 82 981 73 879 79 297 80 427 83 942
3658 7.2799492095152152 -10.205450217065353 18.420992402230798 188 188 188 1.3805115288383383 72 1035 71 451 64 438 54 445 55 444 65 455 68 448 59 415 63 320 61 471 74 441 70 391 77 446 75 456 84 434 82 431 73 453 85 436 78 416 76 305 86 428 79 432 83 290 87 434 80 438
3657 7.3973075357674665 -9.7802028987526768 17.755200494367969 197 197 197 1.3000468867565824 56 912 71 450 64 1176 57 1034 54 996 67 1036 55 978 65 993 68 961 59 943 63 1028 61 1000 74 984 70 998 77 983 75 1000 84 988 82 978 73 1017 81 976 85 944 78 931 76 957 86 962 79 920 83 925 80 927
3656 7.9164294227675951 -10.089087072242297 18.466298714862607 208 208 208 1.7826464485195237 56 435 71 449 57 318 64 215 54 288 55 290 65 313 67 453 59 196 63 464 61 470 74 440 70 305 77 458 75 455 84 419 82 430 73 312 81 454 78 415 76 444 86 427 87 202 63 465
3655 7.647482132579059 -10.116664111162637 18.433318539410728 104 104 104 1.0793108043904649 61 999 65 854 68 960 67 920 55 977 74 983 70 987 54 985 77 850 75 887 84 838 82 867 73 1016 81 637 85 943 78 798 76 443 86 615 79 919 87 433 80 352 59 777
3652 -25.820073466503558 1.8360605373676957 23.400376790183856 206 206 206 1.7840327150016071 60 404 69 416 72 435 56 406 69 690 71 391 77 428 57 445 64 431
3651 12.272685578725996 -1.0647962751942683 23.260218559135364 97 97 97 0.68268390809638935 72 480 71 389 54 278 55 329 65 365 68 282 63 356 61 410 77 301 75 295 84 366 73 364 85 285 78 266 76 294 87 268
3649 -26.965145172182737 3.911851207192643 21.083438667932533 119 119 119 1.8927860639316563 56 360 60 383 62 367 71 381 69 356 72 380 57 377 57 1236 64 359 64 1189 54 350 67 384 55 349 55 1291 67 1237 65 379 65 1246 68 532 59 335 63 376 75 1005 73 1240 82 345 81 1172 58 257 61 380 70 370 73 382 74 571 77 390 81 377 85 530 78 336 78 1118 76 561 86 367 86 1144 79 562 83 340 87 338 80 513
3648 -27.368529897161118 4.0232430332658398 20.767355535307576 120 120 120 1.4176723495993682 60 381 71 378 69 344 57 379 64 360 54 349 67 367 55 538 65 380 68 362 59 363 63 379 61 563 74 361 70 371 75 394 77 389 84 347 82 346 73 389 81 376 81 1168 73 1198 74 1159 56 359 72 377 62 260 68 1209 78 337 78 1112 86 366 79 357 83 512 87 352 80 328
3646 -27.888734736515119 4.1217565320167155 19.890896832454299 102 102 102 1.9637861452177445 56 355 60 378 71 375 72 333 69 360 57 1231 57 388 64 1193 64 363 54 827 54 540 67 359 67 1204 55 534 68 366 68 1154 59 338 63 397 63 1247 61 1179 74 1199 70 1144 77 1196 77 582 84 571 84 1144 82 1156 73 763 81 861 70 394 73 596 74 364 75 575 81 582 78 534 78 1106 76 355 86 559 79 558 79 1135 83 555 87 1123 80 329 80 1113
3645 -28.197846665979551 4.3162882208319413 19.516023048329384 92 92 92 1.0180554127641441 60 377 71 374 69 362 57 387 64 364 54 353 67 369 55 373 65 382 61 391 70 373 77 385 75 375 84 363 82 347 73 381 81 382 56 313 72 251 85 562 78 341 86 351 79 359 83 342 87 354
3642 -7.9705662621484139 3.7285590758607374 14.652885633803475 76 76 76 1.9692121428277609 58 351 72 346 71 343 64 332 54 325 67 890 84 877 85 322 80 296
3641 -24.547754111708709 5.4005132197909207 20.193158889833278 58 58 58 1.027391081147335 60 336 71 339 69 327 57 344 64 326 54 358 67 360 55 321 65 337 68 319 59 332 63 340 61 341 74 329 70 381 77 342 75 337 84 322 82 363 73 335 81 341 56 242 72 257 62 251 85 344 78 302 76 334 86 308 79 348 83 310 87 315 80 311
3640 -26.953923078136594 5.4549739941178661 19.878346747084862 63 63 63 0.50807958326508917 60 333 71 334 57 341 64 323 68 369 61 394 81 339
3639 -1.2256472895007215 -2.6169651030417116 16.052511593762564 128 128 128 0.84830521691921335 56 464 58 329 71 324 57 290 54 264 67 289 55 382 65 483 68 380 59 285 63 491 61 486 74 460 77 1303 76 1031 79 450 86 391 83 446 87 464 80 442
3637 -40.130695604656651 -16.2035795531906 30.199109429885759 255 255 255 2.083620601310054 56 208 72 154 62 146 69 158 54 301 67 323 55 304 65 325 68 309 63 333 61 329 74 316 70 314 77 327 75 320 84 302 82 304 73 322 81 323 60 226 85 306 78 291 59 449 57 852 70 873 73 979 76 320 86 296 79 305 83 291 87 304 79 424 80 412 74 991
3636 8.4063826667774677 -9.8557630410855364 18.154208541490618 70 70 70 2.8030301151511732 72 317 71 303 69 434 57 312
3635 -30.873385633732767 -19.219235503103096 25.66397184889966 35 35 35 1.1485697774884283 60 277 71 301 56 212 72 315 57 321 64 306 65 319 68 303 59 281 63 323 61 324 74 314 70 392 77 318 75 313 73 317 62 306 78 351 76 437 86 365 87 296 80 278
3634 -3.8414276551026063 -12.285614160044634 19.180855404206973 189 189 189 2.8573095318496722 66 314 71 300 52 329 64 293
3633 -30.611714757241259 0.23966928225596157 27.720339094428162 164 164 164 1.4149413553980557 60 287 62 287 69 377 71 287 58 278 56 273 72 290 57 299 58 421 64 392 54 372 67 385 55 266 65 417 66 297 68 274 59 359 63 418 61 401 74 374 70 405 77 406 75 404 84 364 82 382 73 417 81 409 50 295 53 301 54 590 55 673 49 328 51 274 63 633 85 449 78 363 76 393 86 380 79 964 74 1230 76 639 84 1042 86 593 83 388 87 449 80 356
3632 -31.372662273175788 -0.36638313593079347 32.853859401713898 41 41 41 1.6564378495427754 52 215 66 201 69 269 58 252 71 286 30 181 27 215 31 198 33 176 44 257 41 263
3630 -24.913149317155852 5.46629001937354 19.784885366250197 60 60 60 1.0336710902753126 60 245 71 249 69 242 57 260 54 315 55 319 65 339 68 321 59 302 63 342 61 342 74 330 70 361 77 343 75 338 84 323 82 365 73 336 56 241 72 258 85 315 78 304 76 336 86 310 79 321 83 312 87 314 80 297
3629 -25.141510103346697 5.5683706457185407 19.301972291957579 58 58 58 1.1259355748600273 60 231 71 246 69 241 57 346 64 328 54 317 67 336 55 320 65 340 68 322 59 305 63 346 61 344 74 331 70 329 75 339 84 325 82 355 73 337 81 342 56 239 72 259 85 318 76 338 86 313 79 323 83 313 87 320 80 298
3628 -7.0798971763875373 4.3840053671481218 15.853222439317944 72 72 72 1.9055300515730809 58 830 60 237 69 234 71 238 54 332 64 174 60 180 55 336 59 220 68 340 65 348 66 754 74 486 77 497 70 247 75 803 82 326 73 246 74 238 75 183 74 191 81 248 85 173 78 168 78 313 76 484 86 225 79 331 83 173
3627 -0.20216316072888652 -10.818419563604813 17.164987110409694 197 197 197 0.10611228376402823 69 152 71 230
3623 5.3412658646423656 6.8713796608510709 20.608264831837122 84 84 84 1.8884062512045485 56 160 60 133 71 170 57 362 64 164 54 227 67 358 55 315 65 327 68 229 59 318 63 247 61 252 74 199 70 190 77 185 84 226 73 179 81 182 82 167 85 226 78 328 76 133 83 334
3621 7.2956459771075091 4.8773226461142043 20.699687037017192 110 110 110 1.7412329014981647 69 156 71 127 56 221 72 173 71 229 57 134 67 132 68 140 61 212 70 187 77 148 82 137 78 131 87 131
3620 -3.4015713417443543 -2.0479960097930769 14.779099688163965 112 112 112 1.8801976934111788 60 113 69 105 71 118 64 119 57 157 54 234 55 149 65 211 59 157 68 171 73 117 86 234 87 144
3619 -26.663447782119661 2.4564232916860296 25.618574651050178 0 0 0 0.70609266586768171 52 66 62 105 39 63 50 50 56 96 72 104 58 94 42 64 43 64 49 49 34 70 46 62 48 61
3618 7.4213129365983477 -5.4075685917782996 13.950831520319747 114 114 114 0.53384414537743097 62 122 71 90
3616 -21.532390656514035 -13.410495250394556 22.055065418836296 55 55 55 1.4828090137303376 52 932 71 86 58 924 57 162 56 1025 54 157 67 160 65 122 68 156 59 136 74 177 70 122 77 118 73 127 85 155 76 126 86 123 83 141
3615 -32.439049471359859 1.3809764644619822 35.469143866841058 0 0 0 0.77782612291736586 52 21 62 27 66 22 39 12 42 10 43 14 56 34 58 32 72 31 46 9 34 14 35 15 48 12 31 10
3614 9.0622284367593018 3.6428104270238948 22.221460585466748 115 115 115 2.0931959090356567 60 8 71 7 57 9 64 6 54 7 67 5 55 7 65 6 68 6 59 6 63 8 61 3 74 1 70 7 75 2 77 3 82 4 73 2 81 2 78 5 76 3 86 3 83 7 87 8 80 7 84 4
3612 -9.5366498080326849 2.6493210807865082 18.184035523080375 86 86 86 1.0209508441675155 60 2 69 0 71 2 57 3
3609 -2.3888454672825779 -1.3737215539022238 2.4471267459966706 0 0 0 1.168736744533065 66 1167 69 305
3607 -2.5499235661597113 -9.3497511780872067 14.208828602562029 191 191 191 3.2523081790835144 56 217 60 169
3606 12.020144172564425 -0.18037872980624292 23.535286111331853 173 173 173 1.3957620446396903 11 1043 35 1268 72 691 69 415 60 427 2 1347 3 1089 16 1101 15 1610 9 1084 6 1249 21 1214 18 1115 22 1110 14 1077 11 1045 36 1078 19 1073 47 1088 28 1031 40 1090 26 1080 38 1113 29 1061 20 1053 37 1056 32 1094 41 1120 25 864 4 1041 33 1173 44 1125 30 918 31 831 31 897 35 1113 27 882 27 1234 34 897 48 907 48 921 39 1026 45 1065 45 1074 42 913 42 921 46 911 46 912 49 908 43 910 13 1213 23 1222 51 845 50 863 52 1025 53 973 66 948 66 951 58 978 62 977 47 1105 29 1038 41 922 19 1061 72 689 56 611 69 670 60 653 71 417 71 422 57 428 57 474 64 409 54 406 67 405 55 394 68 418 63 429 61 437 70 421 77 429 84 409 81 429 20 937 79 403 87 404
3605 9.8441294266888626 -10.238949414126049 19.276614952614615 94 94 94 2.0863981941732264 56 156 72 320 69 212 60 229 57 234 64 217 67 278 55 155 65 220 68 214 74 277 77 279 75 232 84 211 81 233 82 261 85 225 79 234 76 268 78 205 87 153
3604 10.567161380710907 7.7951573458451442 26.582873846856625 66 66 66 0.2061333142138834 56 1279 60 1274 72 1289
3601 -19.508311157031592 2.0621711021445068 23.563043259515855 76 76 76 0.85168230683263879 56 31 69 30 72 39 60 38 58 33 64 44
3598 -2.2449271807928701 -2.4944910663115336 14.263377746282412 153 153 153 1.7671933346998756 56 881 69 1215 3 1176 6 1267 9 1193 16 1218 18 1250 2 1120 12 1248 15 1116 16 552 18 1252 22 1183 22 1180 14 902 14 1185 11 1141 11 1138 36 962 36 964 40 1189 28 1239 28 1165 19 974 19 1143 47 937 47 1230 26 1007 26 1189 38 1168 38 1207 29 944 29 1158 20 1157 20 1163 40 949 37 1202 32 1279 41 992 41 1229 37 531 25 858 25 1171 4 1154 4 1314 33 1240 44 1190 24 876 24 1158 17 863 8 581 8 1679 7 575 7 1113 5 1538 13 1130 10 563 1 577 62 856 72 908 60 893 64 321 54 250 67 203 55 251 65 276 68 266 59 256 63 206 61 208 84 170 82 207 85 252 78 240 86 392 83 448
3594 -2.6173123824650952 -8.1633190872190244 15.74473305833671 110 110 110 2.0716935602847499 58 1093 71 1040 57 1049 64 994 54 1004 54 1016 55 1001 67 1050 68 994 59 961 61 1024 84 1011 82 997 82 1008 81 994 85 975 78 917 76 975 87 979
3593 3.2071042419413192 -8.3472388076039969 14.239623082644714 149 149 149 1.9673463166100664 56 1000 72 1034 60 1013 55 974 67 1320 68 968 77 979 75 993 84 981 82 971 54 991 81 970 78 913 76 939 86 1269 79 913 83 930
3591 -1.5917437046464173 -8.488768378476804 13.035951553166045 184 184 184 0.89725644806066729 60 927 69 808 65 852 63 890 70 1202 76 947
3590 -1.6241629958631889 -8.9654431348282788 13.95209130497989 195 195 195 1.9914706652076946 66 1027 60 926 58 1105 71 870 62 895 58 902 57 948 54 138 67 314 65 141 59 211 63 225 61 321 70 236 73 236 76 171 86 209 79 160
3589 6.7488800383063117 5.9674891450049765 21.740837805155959 90 90 90 0.1787088738166048 62 399 72 850 60 907
3586 12.409158195666834 6.1105987606695873 26.708177144561347 46 46 46 2.139726000658408 56 1255 72 881 60 838 64 808 71 838 67 1326 54 1281 55 750 65 1231 61 824 61 1331 74 752 70 825 75 818 78 595
3585 11.850903671847043 -0.38184945726654024 23.61826059280795 71 71 71 2.2768507446216133 58 1021 72 991 60 618 62 1058 58 1057 57 984 64 724 67 766 68 1007 59 891 74 1046 81 733 61 1054 85 999 87 1012
3583 1.0407215535495598 6.8018789618973639 18.976454049848364 65 65 65 2.062495447019165 62 554 60 527 64 508 72 533 54 339 55 313 68 510 59 321 63 364
3581 -2.3745363172656209 -9.5494557573869994 14.802334822717455 188 188 188 2.1115905681925478 56 442 72 943 60 458 64 439 54 231 67 268 55 325 68 212 67 451 59 412 63 463 63 876 73 270 83 423 80 154
3580 4.8731892608001406 -8.333591913694427 14.444121176472059 0 0 0 2.049629541410368 69 444 72 466 60 443 56 291
3579 -25.215325309278754 3.508248988340291 25.982830401845387 60 60 60 2.8399233843147011 58 600 69 348 62 594 72 570 69 554 71 555 57 575 57 584 64 547 64 555 60 414 54 536 54 562 67 557 67 569 55 407 55 547 68 413 59 389 63 575 63 804 61 582 70 549 74 536 77 554 84 528 84 529 73 569 81 548 82 567 73 559 65 617 75 541 77 592 85 535 78 506 78 548 76 526 86 531 83 517 83 528 87 553 80 547
3578 11.48027369204037 3.6492907509270469 24.776427493613035 91 91 91 2.0034696305760655 56 329 62 350 60 344 54 222 70 535 73 346 85 330
3573 -0.038062374979223983 5.3094342424520535 17.250204060389905 21 21 21 0.54852652905533617 56 515 69 334 72 353 60 267 55 343 57 358 64 343 73 273 70 350 82 259 78 253 87 337
3570 -12.827162261835422 1.1413628521905452 15.747441896201471 75 75 75 2.4746451793383244 52 43 69 126 53 22 66 42 60 121
3564 12.498130309812627 -3.8188327030948681 22.539422796972094 64 64 64 1.8140623644364164 56 1262 69 929 60 1078 71 664 64 1047 65 1110 70 1067 77 956 84 1056 81 1056 72 1123 78 901 86 932 83 1241 73 987
3562 7.4298825508282604 3.4828650278609112 20.583072676181764 70 70 70 1.2973781667438398 56 1275 69 836 60 1122 67 1160 63 1160
3561 0.91467523478960044 -10.604111667756859 16.881315510853774 85 85 85 1.2956784497691862 56 1007 69 809 60 297 54 1000 67 1039 55 986 63 892 61 1001 70 999 75 1191 84 989 73 1211 85 934 87 438
3559 0.39029599479653415 -9.1954471124718555 20.467371277721163 154 154 154 0.089951393756047757 56 306 69 304 60 316
3558 -29.546056147145471 2.1212693302564132 27.267954875524474 91 91 91 1.1231545797481788 50 373 56 407 72 437 51 286 52 384 53 436 66 311 62 446 58 462 49 418 46 418
3557 -27.643470525355035 1.7140761755070861 24.898363700749982 202 202 202 1.6911063276904534 50 333 56 413 72 443 52 474 53 405 66 425 62 454 58 456 49 311 51 283 62 929 52 1315 53 1260
3555 -28.06805651620817 3.8281691932820094 23.323972447776033 130 130 130 1.6812831320019344 56 363 69 352 62 391 72 386 60 369 71 567 58 333 66 269 52 274 53 314 50 306
3554 -24.856601467518328 1.3231874754525295 24.419919499277754 175 175 175 2.1537613313698829 56 7 72 6 69 4 66 4 62 9 58 7 60 10 71 10 57 11 64 8 54 9 55 8 65 9 68 7 59 8 63 7 61 4 74 7 70 5 77 7 75 8 84 8 82 5 73 7 81 8 52 7 50 4 53 3 85 5 78 8 76 7 86 6 83 5 79 7 80 6
3553 -20.164326552816586 4.9144094127113753 22.271502273187622 28 28 28 1.7665872931568389 56 1 62 4 72 4 69 2 75 7 68 5 77 8 65 5 84 9 81 5 85 8 83 6
